4.458416 2.263300 4.375532
-2.751896 4.174574 1.105359
1.727571 4.692068 7.325189
1.136204 4.869193 5.897098
1.718639 4.695347 4.002273
3.657603 -3.409097 8.690373
-4.676645 1.768896 6.314955
2.132356 4.522506 9.133952
-3.416322 -3.650855 5.018782
-3.499205 3.571493 2.158966
-0.709524 4.949402 0.425263
-3.055828 -3.957514 6.394347
4.607105 1.942828 8.900120
-4.991661 0.288658 7.912692
-4.950472 -0.702015 4.890310
-3.756193 3.300154 1.203017
0.271694 4.992613 2.236174
-4.393171 -2.387477 0.459132
-4.609707 -1.936647 7.696981
-0.740639 4.944841 0.432306
-0.824015 -4.931632 6.887985
-1.564312 4.748992 0.195354
-1.148207 -4.866376 2.609930
-4.604058 1.950040 8.884627
-2.907286 -4.067885 8.559814
-4.994264 0.239427 6.720619
4.059186 -2.919419 4.117841
3.998498 -3.002002 7.519257
-4.445688 2.288201 9.225344
2.031179 -4.568841 8.144223
-4.175899 2.749886 4.735077
-4.537001 2.101337 5.729319
-2.633206 -4.250438 9.575237
-2.968851 4.023173 8.498572
-3.007653 -3.994249 2.385352
-4.362884 -2.442385 9.178752
-1.360368 -4.811382 8.430557
4.048780 -2.933834 6.946078
4.893045 -1.028645 2.549270
-4.789473 1.435600 7.972343
0.995293 4.899938 2.190358
3.777588 3.275642 7.265789
-2.089572 4.542432 7.134309
3.375987 -3.688185 1.006713
3.915787 3.109117 2.044771
4.997988 0.141827 9.828055
4.021394 2.971261 1.960004
-2.954700 -4.033578 0.443870
2.188574 4.495570 5.292498
2.994593 -4.004050 5.546764
4.991767 0.286810 5.190767
2.427985 4.370914 4.379867
-4.116659 2.837801 9.487049
4.107236 -2.851423 6.296987
4.107052 2.851689 1.367009
1.342378 4.816432 7.154081
4.150435 -2.788169 2.932008
4.041853 -2.943369 2.836693
-0.962437 4.906497 0.699295
2.699773 4.208471 4.871098
0.553182 -4.969305 0.409613
-3.629728 -3.438761 3.984449
3.019699 -3.985150 2.968229
-3.568220 3.502542 4.655820
4.972123 -0.527248 2.916810
-4.429600 2.319191 8.709233
2.887527 -4.081935 9.538524
4.999845 -0.039415 7.328979
-4.802164 1.392558 7.703767
-1.694532 4.704101 8.404451
-4.984543 0.392852 5.909315
-4.963351 0.604270 1.619807
3.919323 -3.104658 6.858823
1.639859 4.723438 7.590676
4.857928 -1.183444 6.308924
1.524963 4.761774 4.962010
-4.728208 -1.626052 5.678494
-3.023166 3.982521 1.438723
2.170221 4.504458 1.646336
3.884550 3.148058 6.376621
2.824456 -4.125827 6.717968
4.963991 -0.598996 3.924962
4.963858 0.600095 0.827539
-2.727270 -4.190703 5.249525
0.191119 -4.996346 2.622121
3.637549 -3.430487 9.852558
3.981171 -3.024943 7.525593
3.672546 -3.392994 0.738801
0.641829 -4.958634 8.430718
4.239665 -2.650516 5.220841
-0.792959 4.936721 3.873825
-2.908728 4.066854 0.894350
3.071857 -3.945085 8.770698
-4.987468 -0.353788 5.463088
-4.678300 1.764515 2.146010
-4.814523 -1.349212 2.402475
-2.512530 -4.322869 5.695030
-2.465137 -4.350069 5.661391
-2.165855 4.506559 5.601480
2.738667 -4.183265 1.805647
4.912920 0.929094 9.111136
3.497382 -3.573278 2.355628
3.291509 3.763770 8.493579
0.215356 4.995360 4.596272
0.535066 -4.971288 1.577485
-2.583594 -4.280776 2.646266
-1.026271 4.893543 0.115513
-4.401536 -2.372021 0.989193
3.823296 -3.222175 0.653811
-4.797802 1.407514 7.319115
-1.768978 -4.676614 8.293400
2.025548 4.571341 3.341401
0.504871 -4.974445 2.525908
4.587496 -1.988689 7.249403
1.441664 -4.787651 5.829095
4.892575 -1.030878 5.852592
-4.979881 0.448085 3.419735
4.927202 -0.850107 4.974996
0.954710 -4.908007 0.922481
-1.438510 4.788600 1.395296
3.589899 3.480320 0.893916
-1.923921 -4.615033 7.493345
-4.483093 -2.214019 7.027015
4.922271 -0.878207 2.763565
4.977062 -0.478386 0.400360
-4.292620 -2.563867 3.253350
-2.005849 -4.580018 8.896212
3.893877 -3.136515 6.694752
4.967189 0.571868 6.554816
-4.981447 0.430327 1.007405
1.055683 -4.887283 7.791792
-4.420316 2.336836 5.660014
3.987278 -3.016888 3.176707
-4.594355 1.972790 9.621713
-3.932046 3.088530 1.091740
-3.048301 -3.963315 6.025306
2.888672 -4.081124 5.676271
-2.509760 4.324477 7.362583
1.835037 -4.651090 8.664647
2.783827 -4.153349 9.426983
1.473808 4.777854 7.604211
-2.619711 4.258769 6.531661
-4.884383 -1.069021 6.901686
4.085534 2.882432 0.399040
-4.885557 -1.063640 1.820991
-0.150902 -4.997722 7.230313
-0.379081 -4.985609 5.819552
4.942908 0.753433 5.953559
-4.831293 -1.287871 5.611096
2.612472 4.263214 9.982289
-4.625217 1.899307 6.273847
-0.990805 -4.900847 3.969917
-4.899053 0.999638 6.024126
-2.497508 -4.331565 7.000936
-2.498852 4.330790 4.047010
0.601507 -4.963687 0.452056
-3.354653 3.707601 6.622272
-4.896525 -1.011949 6.640717
-4.897264 1.008369 9.510041
0.579044 -4.966358 5.527630
-4.159150 2.775152 9.778282
-0.751710 4.943170 6.942789
4.149765 2.789166 3.067598
-3.666491 3.399535 5.704553
4.876890 1.102700 9.877931
0.629595 4.960203 5.279615
2.039150 4.565290 7.086758
1.949540 -4.604269 4.887422
2.408144 4.381876 2.474716
2.018345 -4.574525 8.644798
-4.791125 1.430079 5.458023
-2.008562 -4.578829 1.903672
-3.003543 -3.997340 9.261664
3.750492 -3.306631 5.171893
-1.553965 4.752388 4.419028
-1.620880 4.729984 2.495559
-4.993653 -0.251860 7.263538
3.377274 3.687007 6.513960
4.905313 0.968455 1.107801
3.296901 3.759048 4.112108
3.296165 -3.759694 2.076013
0.626328 4.960616 7.071666
4.516175 2.145731 0.011457
4.948965 0.712565 1.944493
-2.746543 4.178098 6.062936
-0.908728 -4.916728 7.024202
4.253138 2.628843 9.890589
-0.855468 4.926274 2.864102
-4.685390 -1.745602 7.716464
2.064844 4.553726 2.225308
3.508167 3.562690 4.838270
3.480314 3.589905 4.278085
2.290684 4.444409 5.220491
4.386764 2.399230 8.774208
-1.061487 -4.886025 7.103306
0.754285 -4.942778 0.283819
-2.183801 -4.497890 6.533052
-3.561961 3.508907 2.595383
-1.886339 4.630521 0.525780
-4.337101 2.487882 2.613929
-3.992226 3.010337 4.322638
1.230386 4.846251 2.550568
-1.020369 4.894778 7.297945
-3.944750 -3.072286 5.664639
1.848858 4.645613 0.112342
4.222653 -2.677537 2.531331
-1.962690 4.598679 0.905919
2.710882 -4.201323 5.977214
-4.303531 -2.545510 3.280138
2.966258 -4.025085 3.383985
1.212263 4.850816 7.410189
-4.851173 1.210834 9.338397
-1.936848 -4.609623 2.001865
-4.491415 2.197088 2.343390
-0.982262 4.902567 6.862361
-4.407092 -2.361681 7.154982
-0.126289 -4.998405 0.577225
-3.856013 3.182948 7.898806
-2.359232 -4.408404 2.636907
2.896932 4.075265 9.158083
4.277417 -2.589151 3.924649
4.922016 -0.879635 9.466477
0.065836 4.999567 8.444786
-0.289873 -4.991590 6.796957
-4.401265 -2.372522 6.484708
3.816239 -3.230529 2.253106
-4.131470 2.816196 5.500129
-0.378504 -4.985653 6.443215
-4.304907 2.543181 5.199032
4.908088 0.954291 3.789728
4.417808 -2.341576 5.030576
1.663166 -4.715281 3.756872
3.254826 3.795538 5.127411
-0.851137 4.927024 8.025166
-4.950817 -0.699582 1.053252
4.313580 -2.528443 9.215804
4.987152 -0.358205 1.970194
-2.579427 -4.283288 6.597757
4.501208 2.176953 2.348357
-4.723242 1.640423 8.992361
-4.899046 0.999675 9.166531
-4.834487 1.275829 5.532709
-4.800330 -1.398869 7.028954
-4.381547 2.408743 1.594887
-0.625517 -4.960719 8.146322
-3.500487 -3.570237 9.018282
0.284316 4.991910 9.951232
-0.277689 -4.992283 4.471682
-0.804135 4.934913 4.092617
0.001924 -5.000000 9.494757
2.826098 4.124703 5.049409
-0.652027 -4.957304 9.513145
-0.700451 -4.950694 3.952306
4.896639 1.011398 8.487683
3.213340 -3.830724 2.237738
3.727274 -3.332781 3.186936
-1.940711 4.607997 7.979682
4.991961 0.283417 3.020339
2.019154 -4.574168 0.076300
-4.778447 1.471884 2.763784
-3.180247 3.858242 2.521603
3.157571 3.876822 7.242916
4.806102 -1.378908 8.634282
0.788804 -4.937387 9.153582
-3.285339 3.769158 2.106711
-4.825404 -1.309762 7.402415
4.988598 0.337480 0.437617
2.085661 4.544229 8.374921
4.305419 -2.542315 9.938336
0.512552 -4.973660 4.712014
-4.624584 1.900849 1.714440
4.633133 -1.879915 3.896290
1.745216 4.685533 3.568413
0.939072 4.911023 5.655369
-3.462277 3.607304 2.416518
4.531027 2.114188 3.554171
-2.010173 -4.578122 5.672409
-3.162381 -3.872899 0.008550
-1.452429 -4.784396 6.218600
-2.771596 4.161521 0.302446
-3.500551 -3.570174 0.598071
2.951012 4.036277 2.884900
-4.983581 0.404871 2.835810
-4.956444 0.658533 6.953698
4.075687 2.896338 9.421337
-4.430808 -2.316883 6.640714
4.562488 2.045411 2.302175
-0.694757 4.951496 0.711751
1.576685 -4.744899 6.043362
1.781907 4.671703 0.747050
2.978769 4.015836 6.330688
-4.812429 1.356661 5.808909
0.788844 4.937380 8.046400
-4.128899 -2.819963 2.411370
-2.666291 -4.229763 0.345173
1.349940 -4.814318 6.362125
-1.825018 -4.655031 8.245274
4.878958 -1.093514 4.889856
4.593738 1.974226 7.015675
2.804708 4.139277 8.337632
-4.329418 2.501227 5.778974
-3.539737 3.531326 6.656943
4.584213 1.996244 3.492693
-4.297688 -2.555362 2.081549
4.991010 -0.299697 0.882130
-4.714836 1.664429 4.600033
4.230432 2.665230 7.265409
3.032966 3.975062 2.044535
0.421609 -4.982193 2.131389
-4.908155 0.953946 7.982435
4.384638 2.403112 1.516913
4.175236 -2.750891 8.406294
0.727657 -4.946768 6.401207
-2.767537 4.164222 7.464101
0.820434 -4.932230 6.038645
0.542759 4.970454 8.731948
0.636247 4.959354 1.928256
-1.075234 -4.883019 9.814691
3.946109 -3.070542 7.606361
-4.429570 -2.319247 3.118381
4.636085 -1.872623 1.999667
4.994593 -0.232471 2.494327
4.040859 2.944734 9.401975
-0.879220 4.922090 0.004043
1.771305 -4.675733 1.400312
4.301313 -2.549256 5.692115
-4.069782 2.904630 9.653629
4.341914 2.479472 4.805413
3.661215 -3.405217 5.115657
1.179695 -4.858839 6.818946
2.738755 -4.183207 5.259819
-2.816372 4.131349 0.738020
4.335491 2.490686 8.442262
-4.991800 -0.286242 9.506595
4.596863 -1.966940 5.047179
-4.653016 -1.830147 9.479774
-3.428896 3.639048 1.388452
4.130340 2.817852 9.709630
3.917666 -3.106749 7.213813
-3.330652 -3.729177 4.108909
-2.744292 4.179577 5.913313
-4.955214 -0.667724 8.221363
3.829171 3.215191 7.121892
4.158312 -2.776409 1.319156
0.895274 -4.919196 7.481375
2.160602 -4.509080 3.211042
2.892287 -4.078563 0.011202
3.154784 -3.879090 0.321775
3.221960 -3.823477 4.434008
-3.053638 -3.959204 0.244044
3.714454 3.347063 2.069774
-4.137873 2.806779 4.176444
-4.280292 2.584396 5.462677
4.929850 -0.834615 0.032714
4.999200 0.089429 6.670944
-4.353073 2.459828 8.996784
0.230201 -4.994698 7.478876
-4.728889 -1.624072 0.093100
4.329773 -2.500613 9.158989
3.868297 -3.168008 3.335642
4.996733 -0.180726 1.506132
-4.598619 -1.962831 0.143948
-1.963714 4.598242 8.936184
-0.647451 4.957903 2.430167
-3.507489 3.563358 9.697715
-1.279213 -4.833592 1.955490
-4.229444 2.666797 2.052116
-4.370547 -2.428645 5.202636
4.989518 -0.323589 3.199336
4.157158 -2.778136 1.674227
1.899833 4.625001 1.796947
4.950854 -0.699318 6.873064
-0.287563 -4.991724 6.146154
1.359773 4.811550 7.417454
4.090303 2.875660 4.961326
-1.331253 4.819519 5.763257
4.971438 -0.533667 5.961505
-4.995534 -0.211286 0.750024
0.232986 4.994569 8.617234
2.966700 4.024759 0.235539
-2.609016 4.265329 6.093408
-4.040413 -2.945347 0.295146
-3.673265 -3.392215 3.713225
4.814742 -1.348428 0.102429
4.977859 0.470020 1.488829
-3.805338 3.243362 1.163249
-4.474301 -2.231732 7.418911
-4.792402 -1.425792 7.254524
2.329663 -4.424101 4.825036
3.898795 -3.130399 9.066945
3.962646 -3.049170 8.221663
-1.869104 -4.637505 6.825312
-3.493664 3.576913 0.081601
1.413406 -4.796070 9.175589
4.100493 2.861111 6.143295
0.597733 4.964143 3.709535
4.861972 -1.166716 4.851263
-1.561151 4.750033 6.249290
-2.205095 -4.487489 7.088228
-4.404972 -2.365633 7.393909
4.861256 -1.169696 7.329931
3.118851 -3.908039 8.668595
-0.585546 -4.965595 4.093992
1.914150 -4.619094 6.228019
-2.487522 4.337307 6.791672
-4.551558 2.069618 0.604207
-3.453246 3.615949 0.899928
-4.154570 2.782004 0.453970
-4.999566 0.065890 4.984580
2.483608 4.339550 6.649323
4.989529 -0.323419 7.234568
2.685944 -4.217310 8.514692
4.999860 -0.037413 6.662525
2.931496 -4.050473 9.450193
-2.083264 -4.545329 8.537982
4.993150 0.261634 2.721500
3.392743 3.672778 9.022828
-3.804265 -3.244621 5.036232
4.008540 -2.988580 3.771180
-1.039427 -4.890766 5.447169
-3.514701 3.556245 1.718591
-1.600216 -4.737015 1.701109
3.026972 -3.979628 1.796781
-0.191961 -4.996314 5.345988
-4.999892 -0.032876 4.066991
-4.956287 -0.659711 6.875637
1.726978 4.692286 1.470157
-2.925066 -4.055119 3.709332
4.842136 -1.246484 3.447885
2.813930 -4.133013 6.536596
-3.452121 -3.617024 0.459940
-1.091076 4.879503 8.544823
4.337312 2.487514 2.206252
-2.563104 -4.293076 4.859612
4.996766 -0.179813 6.586398
-1.451263 4.784750 5.143952
-4.976438 0.484837 2.358604
3.323501 3.735551 3.944351
2.026386 4.570969 6.812920
4.835136 -1.273365 0.833147
4.652672 1.831021 8.652453
1.922550 4.615604 0.325844
-2.728446 -4.189938 5.147990
2.174559 -4.502365 3.513354
-4.596388 1.968049 5.999611
3.853215 3.186336 1.487181
-4.959234 0.637183 7.958449
-3.530517 -3.540543 6.100035
4.775432 1.481636 1.175671
4.920078 0.890410 8.309421
-4.637801 1.868368 7.929109
-4.942998 -0.752842 7.846950
-4.671017 1.783705 5.323767
4.516782 2.144453 1.430342
-1.751169 4.683312 9.370731
4.929251 0.838145 9.603833
3.053674 3.959176 0.080045
-0.236078 -4.994424 8.805630
3.725767 3.334466 1.874394
-3.065765 3.949821 7.434697
-0.029464 -4.999913 9.942007
4.973805 -0.511138 8.606926
-0.461388 -4.978667 2.360652
4.999905 -0.030845 9.278222
2.555116 -4.297834 6.635560
4.284847 -2.576836 5.920430
4.736988 -1.600295 2.766097
-2.519318 4.318916 3.801647
4.883586 -1.072652 6.346850
-4.979358 -0.453867 1.527138
-3.323040 3.735961 8.804919
-3.351438 -3.710507 9.914095
-4.912943 -0.928974 5.742378
-3.820657 3.225303 3.629680
0.890434 4.920074 7.984804
-2.585150 4.279836 3.171946
2.627253 4.254120 4.793430
0.717381 4.948269 0.458034
-1.510803 4.766285 5.238109
4.989970 0.316542 3.051246
2.505381 4.327016 4.992083
-4.768853 1.502678 6.465388
-4.186027 2.734443 6.269049
1.190750 4.856142 3.110581
-2.846032 -4.110973 0.842051
-0.960303 4.906915 2.720296
-4.288550 2.570669 1.763832
3.047120 -3.964222 3.680525
4.338719 -2.485059 4.954487
-4.884180 1.069947 3.681429
0.989395 -4.901132 1.473055
-4.863022 -1.162334 9.251383
3.096852 3.925495 9.823330
-3.230141 -3.816568 6.949232
-1.304091 -4.826940 0.639066
-0.715292 4.948571 9.149053
3.833817 -3.209649 1.517831
4.818981 -1.333201 4.997285
-4.230215 -2.665574 1.816063
2.768108 -4.163842 8.649967
1.374815 -4.807274 8.315611
3.766784 3.288060 3.063770
-4.996661 -0.182689 7.451282
-4.975645 0.492902 9.087520
-3.696972 3.366363 8.451438
-4.130770 -2.817222 2.089013
3.850589 -3.189508 0.864000
-4.521370 2.134764 2.800344
4.152669 -2.784842 4.906297
4.940612 -0.768344 5.942788
-2.844320 -4.112158 7.900642
1.258984 4.838901 0.897459
-4.997177 -0.168008 6.197483
4.755759 -1.543617 9.053583
4.988003 -0.346159 7.374081
2.688971 -4.215381 2.595292
4.861974 1.166709 4.423544
-3.204469 -3.838148 0.093490
1.875269 -4.635015 2.125695
4.882008 1.079812 7.771750
3.475466 -3.594598 1.570923
4.993052 0.263502 7.063870
-4.833535 -1.279429 7.445404
3.145572 -3.886564 9.967274
-0.433924 4.981135 2.905110
-4.279628 -2.585494 1.120175
2.647792 -4.241367 6.053006
-4.357934 -2.451206 6.573832
-0.217728 4.995257 5.802273
-4.786392 -1.445838 4.142259
-4.998582 -0.119060 5.149588
-4.034458 -2.953497 1.231159
1.833279 -4.651784 7.817734
4.390230 -2.392881 5.028161
-1.266351 4.836978 2.094333
-4.923169 0.873159 7.968329
-3.939506 3.079008 4.631373
4.999261 0.085978 2.302431
3.090842 -3.930228 4.648438
-3.035423 -3.973186 3.284839
1.934858 -4.610458 8.551319
-3.640515 3.427339 0.597153
4.996983 0.173675 7.446288
-3.806194 3.242358 4.433778
-2.303148 -4.437962 9.666491
-4.778724 1.470983 8.578193
-2.554236 4.298357 0.781879
0.820466 -4.932224 4.773377
2.316129 4.431202 9.864654
1.168458 4.861554 8.574770
-4.487655 2.204757 0.838783
3.735747 -3.323281 2.798629
-4.586012 1.992108 0.533625
-1.211493 4.851009 1.186262
4.591126 -1.980293 8.350805
-4.357598 2.451804 0.512356
-1.534533 4.758698 5.114869
0.193130 4.996269 8.634500
4.325339 2.508275 4.422937
4.766766 -1.509286 6.759097
-2.159568 -4.509575 6.907662
4.999107 -0.094486 5.038612
3.841854 3.200025 4.058743
2.555163 -4.297807 4.037384
-4.882930 -1.075638 7.203180
-0.181588 -4.996702 3.771282
2.413573 4.378889 4.698644
4.999013 -0.099346 5.665190
4.656621 1.820955 3.915734
4.961221 -0.621517 4.029809
-1.849222 4.645469 7.808200
-3.167428 -3.868772 0.561697
-1.340694 -4.816901 9.523670
-4.238346 2.652626 3.807649
-4.784865 1.450886 1.446822
-4.882573 1.077258 6.849863
1.559148 -4.750690 6.800727
4.886129 1.061011 5.779543
3.428393 -3.639522 8.580143
4.052262 -2.929023 2.981161
-1.593100 -4.739413 7.711474
4.294798 -2.560216 4.840078
-4.902982 0.980190 0.680414
-3.134561 3.895449 4.304024
-4.991341 -0.294142 1.892057
3.273438 3.779498 2.514610
-1.333574 4.818877 3.047009
-2.980284 4.014711 7.565480
-4.956042 -0.661553 2.799260
-4.969713 -0.549500 8.504195
4.825222 -1.310433 2.146595
3.699476 3.363610 3.260408
0.186337 -4.996527 4.525222
1.583847 -4.742513 4.285777
3.909630 3.116856 2.012424
-1.431633 4.790660 3.782875
-1.576183 4.745065 6.351437
4.418201 2.340833 9.935486
4.990979 -0.300215 6.347028
2.596796 -4.272780 1.460747
3.614552 -3.454709 1.847165
0.443610 -4.980282 6.426072
3.410006 3.656755 4.280450
-3.221383 3.823963 2.136862
4.379535 -2.412400 1.167291
1.305293 -4.826615 2.915940
-2.986304 -4.010236 6.950056
-1.493102 -4.771860 4.346130
-3.319475 -3.739129 8.824742
-2.573247 4.287004 9.599078
0.709170 -4.949452 3.869982
2.885249 -4.083545 6.963157
-2.906774 4.068251 6.178389
-3.376794 3.687446 2.059541
-3.719242 -3.341741 8.419657
-1.123683 -4.872098 2.111636
2.210852 -4.484655 9.368983
-4.234093 2.659409 1.137316
-4.684343 1.748409 2.346498
0.832185 -4.930260 3.830446
-1.523915 4.762109 9.083557
-4.469548 2.241236 3.195240
-4.999584 0.064504 7.484107
-4.761979 1.524322 0.634346
4.496830 2.185982 5.157144
-0.525449 -4.972314 7.299297
1.793663 -4.667202 0.903176
4.973432 -0.514759 8.161603
4.946811 -0.727368 7.193162
-0.911470 -4.916220 1.136935
-4.994715 -0.229830 9.673910
4.485812 2.208505 0.777567
-2.336558 4.420464 0.741273
2.916546 -4.061251 3.316550
-4.483845 -2.212495 4.549758
2.826975 4.124102 2.920386
-1.052495 4.887970 2.804649
4.978517 0.463003 6.192954
4.998062 -0.139196 6.067494
2.592418 4.275438 7.981142
-4.383777 2.404683 3.838546
3.521647 3.549367 1.750999
-3.537457 3.533609 8.217811
4.997926 0.143993 4.104107
-3.504552 3.566247 7.210912
4.321621 2.514674 7.293546
2.899930 4.073132 9.254808
2.518268 -4.319529 7.677750
4.698940 1.708789 0.802679
4.304667 2.543588 5.799288
0.298252 -4.991097 7.470341
-4.998955 -0.102231 8.874526
-3.157431 -3.876935 4.110260
0.547489 4.969935 8.372849
-4.553659 2.064991 5.212246
2.496203 4.332317 3.185431
-1.357957 4.812063 2.738551
-4.575106 -2.017028 5.250975
-1.416667 -4.795107 7.907700
4.996573 0.185101 1.456567
1.364461 4.810223 9.198943
-4.972146 -0.527030 4.075595
4.942111 -0.758645 7.956696
4.945214 -0.738148 6.229827
-0.123788 -4.998467 5.370799
3.897066 3.132551 0.738273
4.505354 -2.168361 4.868271
-4.902760 -0.981296 1.451337
-4.860176 -1.174178 4.068788
3.167760 -3.868500 9.574246
0.615713 -4.961945 8.180672
2.874882 -4.090850 7.725968
4.880822 1.085164 8.706722
3.419098 3.648256 2.317166
4.609123 -1.938036 6.949474
-0.922528 -4.914157 6.026887
3.823920 -3.221433 0.177703
-2.850399 4.107946 5.317809
3.507153 3.563688 6.570236
-1.980528 4.591025 1.513202
3.948062 -3.068030 6.531097
-4.549520 -2.074094 6.883645
2.872846 4.092280 2.690969
-2.842416 -4.113474 1.156478
-2.926319 -4.054215 8.757488
4.430984 2.316545 9.058622
4.096879 2.866284 6.381548
1.653958 4.718519 4.446018
1.703202 4.700968 3.336541
-2.054632 -4.558343 8.917779
4.367697 2.433767 1.294778
-2.693080 4.212757 8.515403
-2.689121 4.215285 1.926661
4.941190 -0.764617 4.595665
4.526844 -2.123130 9.039332
0.109672 4.998797 3.785055
1.074064 -4.883276 4.652331
4.998568 -0.119665 0.829095
0.077124 4.999405 5.330708
-1.815448 4.658771 7.444047
-4.557687 2.056085 6.697761
4.976590 -0.483269 8.926454
-0.523116 4.972560 8.331053
0.307570 -4.990531 7.368375
-4.992358 0.276329 8.555155
-4.381699 -2.408468 5.754458
1.416610 4.795124 9.349678
1.961364 -4.599245 1.182642
4.557382 -2.056761 9.948036
-4.995163 0.219877 6.861211
0.551141 -4.969532 2.892900
1.486939 4.773784 3.075995
3.677989 -3.387093 5.631460
2.612289 -4.263326 6.752085
4.152304 2.785385 9.887433
4.841174 -1.250212 6.907269
2.858860 -4.102063 9.546711
0.786778 -4.937710 8.214176
0.196588 -4.996134 7.281213
-1.380262 4.805713 9.852113
-1.293169 4.829877 0.683992
4.119282 -2.833992 9.229923
-0.131181 4.998279 6.937850
-2.432100 -4.368625 5.221346
1.838891 -4.649568 4.551942
-0.533902 4.971413 6.530204
-3.575336 3.495279 5.082074
-0.016715 4.999972 3.787350
-2.551690 -4.299870 8.013150
4.954607 0.672214 0.957952
-3.799210 -3.250539 9.145906
-1.571772 4.746528 6.762114
4.132858 -2.814158 1.285306
-4.538676 2.097718 5.652889
3.121676 3.905783 8.792034
3.875693 3.158956 9.970015
-4.031666 2.957308 7.045977
3.928689 -3.092799 3.978179
4.418416 2.340427 5.440916
-4.673178 -1.778035 7.930488
-4.917683 0.903546 1.602653
4.541087 -2.092494 6.208220
-4.865925 -1.150121 3.989913
-1.298244 -4.828516 9.465676
0.305746 -4.990643 6.855900
-0.183598 -4.996628 0.450400
0.762839 -4.941465 2.951633
-3.626876 3.441769 9.851710
-0.902290 4.917913 2.467421
3.387369 -3.677735 0.672737
4.290594 2.567255 8.538459
2.504986 -4.327244 8.920884
4.916555 -0.909662 9.453058
-4.396870 2.380658 6.179687
3.968140 3.042017 1.040410
-2.783292 4.153707 9.420125
4.817269 1.339373 8.563145
0.126016 4.998412 8.535342
-1.041375 -4.890351 1.221777
2.165058 4.506942 7.123734
4.664063 1.801808 8.330280
1.480893 -4.775663 2.853171
2.951259 -4.036096 0.228989
-4.198088 -2.715890 5.818399
1.482187 -4.775261 4.907583
3.380802 -3.683772 9.918421
1.880916 4.632727 2.058195
-0.164482 -4.997294 0.303591
4.923350 -0.872138 3.705631
4.788198 -1.439848 2.032250
-4.649959 1.837902 2.646637
4.530888 -2.114487 7.575979
4.455839 2.268370 0.361982
4.786815 -1.444439 8.802670
-2.803183 4.140310 2.529276
-0.737353 4.945332 8.430881
4.094620 -2.869510 6.276135
-4.327929 2.503804 5.797176
1.464477 4.780723 0.468057
0.701445 -4.950553 7.420458
-1.911769 -4.620080 5.223213
4.429944 2.318533 9.762654
-0.250378 4.993727 0.954619
1.099669 4.877574 2.992950
2.020467 -4.573589 6.238840
4.793748 1.421260 1.893174
4.200265 2.712522 3.701672
-4.487267 -2.205546 4.789111
1.499815 -4.769754 6.351587
3.600277 3.469583 5.688273
-2.190374 4.494693 3.233129
3.670987 3.394680 0.260379
-1.834161 4.651436 6.590188
3.007820 3.994123 7.441683
-4.493545 -2.192727 5.962188
-1.685232 -4.707440 1.787068
-4.621898 -1.907370 2.055847
4.122641 -2.829105 4.751480
1.724085 -4.693350 1.407938
0.337084 -4.988625 2.349687
1.734196 4.689623 2.826184
-3.756046 3.300321 1.606237
-4.981806 -0.426158 7.911962
-2.476439 4.343645 9.897906
4.973298 -0.516054 7.308295
4.283920 -2.578377 1.232437
-2.038539 -4.565562 2.496532
-4.969305 0.553183 6.311017
4.696953 1.714245 2.764372
4.841545 1.248775 4.893014
0.646220 -4.958064 3.653688
4.400309 -2.374296 6.804516
-3.437774 -3.630662 9.435765
3.777619 -3.275606 7.511189
3.299193 3.757036 3.526796
1.586623 4.741585 3.857457
4.955095 0.668608 0.278019
4.720129 -1.649358 3.990237
2.087551 4.543361 3.397777
-4.944130 -0.745372 9.044476
2.950104 4.036940 8.675905
-1.886376 4.630506 7.539141
0.011817 4.999986 7.791424
3.045635 -3.965364 9.247854
-4.393857 -2.386215 2.918743
-1.177438 -4.859387 6.718234
4.253374 2.628461 6.091674
1.310154 4.825298 2.668958
-3.961850 3.050205 6.214809
-3.898867 -3.130309 2.928669
-0.260643 4.993202 4.762789
-4.865675 -1.151176 7.258092
-0.198885 4.996043 9.863750
-4.041296 -2.944134 1.030663
2.366122 -4.404709 8.080818
-4.787032 -1.443719 4.785453
-4.817807 -1.337438 9.374922
-0.203486 -4.995858 3.030014
0.898522 -4.918603 8.502213
3.331214 -3.728675 7.492306
2.192751 4.493533 4.559943
0.884449 4.921153 9.443912
3.130091 3.899042 7.837857
4.585774 -1.992655 3.188328
-2.113144 4.531514 7.567644
-3.083001 3.936382 4.891471
0.831890 -4.930310 7.083842
-1.137334 4.868929 0.055751
-2.110013 -4.532973 4.108267
-4.078653 2.892160 9.881353
4.932260 0.820250 6.013343
0.912456 -4.916037 0.299566
1.060058 -4.886336 0.338023
-4.801816 1.393758 1.675807
1.173450 -4.860351 6.773930
4.789381 -1.435907 5.454303
-1.483761 4.774773 3.252051
-3.584973 -3.485393 6.575437
1.762269 4.679146 4.834700
-2.779099 4.156514 9.648681
4.965773 0.584035 5.872412
3.615002 3.454238 9.734444
3.629779 -3.438707 5.903847
-4.575408 2.016343 9.923032
3.703916 3.358721 6.872520
-2.333306 -4.422181 0.805456
-2.185314 -4.497155 7.556210
-3.088105 -3.932380 1.989462
4.998289 0.130784 2.513365
-4.351691 2.462273 7.673711
1.321903 -4.822092 8.679158
-0.978394 -4.903340 6.217978
3.188931 3.851068 3.501051
3.830838 3.213204 8.478429
1.937094 -4.609519 3.890663
4.809647 -1.366490 7.945556
0.653252 -4.957143 8.216369
-4.470887 -2.238565 8.826100
-0.740258 -4.944898 8.111490
4.979806 -0.448923 7.987923
-2.351265 4.412658 0.997607
4.652043 -1.832621 2.599421
-0.209320 -4.995617 5.099603
-0.555533 4.969042 0.233061
-3.306076 3.750981 8.677684
-4.635853 -1.873196 4.756502
4.053214 -2.927705 4.091935
-1.424050 -4.792920 9.651079
-3.273808 -3.779177 2.680246
-1.192121 4.855805 1.180660
-1.025836 -4.893635 0.161412
4.425199 2.327576 9.051498
-1.462928 -4.781197 8.129710
-3.918661 -3.105494 1.397220
0.079509 4.999368 5.721915
4.942602 -0.755436 7.472028
3.271576 3.781110 5.008053
-3.422024 3.645511 6.573508
0.740424 4.944873 6.147277
-2.964332 -4.026504 4.057199
3.932351 3.088141 1.840032
-4.762904 1.521430 8.243386
4.371859 2.426282 9.045908
0.824760 4.931508 1.391968
0.361249 -4.986933 1.768757
-4.995901 0.202407 0.339918
1.494628 -4.771382 9.396123
-4.259069 2.619224 8.130687
4.622153 1.906750 5.161787
-4.998446 0.124655 2.049885
-4.984673 0.391201 1.668003
4.072437 2.900906 2.998176
-1.676584 -4.710527 3.728729
2.722330 4.193915 4.503458
4.147526 -2.792495 2.470929
-2.926090 -4.054380 9.507605
0.066763 -4.999554 4.781298
-4.999771 0.047829 7.663427
-4.490843 2.198256 6.777610
2.607828 4.266056 3.758402
-4.060632 2.917408 8.417412
3.630051 3.438419 8.889551
-1.969912 -4.595590 8.317520
3.864978 3.172057 1.909105
-4.989172 0.328878 5.655341
-4.914846 0.918854 8.554178
4.266933 2.606393 8.196556
-4.014958 -2.979951 3.684208
-0.507202 -4.974208 2.495712
4.558095 2.055180 4.427298
-4.695378 -1.718554 9.817309
4.923375 -0.871996 6.790545
1.166738 4.861967 4.938539
-0.267032 -4.992864 6.960795
-2.782169 -4.154459 0.232141
1.489300 4.773048 4.498817
-4.909408 0.947478 4.827754
4.449649 2.280487 2.876641
-0.873511 4.923107 1.256441
-2.930846 4.050943 5.872816
-4.663673 1.802818 4.308579
4.972843 -0.520420 7.445237
1.546235 4.754909 0.251651
4.152014 -2.785818 3.983533
-4.378033 -2.415124 9.657033
3.957491 3.055858 2.154611
-0.254970 -4.993495 5.956652
0.925134 -4.913667 1.303309
3.025894 -3.980448 4.172195
0.476711 4.977223 0.048907
-2.774041 -4.159891 7.980374
-4.957437 -0.651017 4.301292
-4.680270 -1.759281 9.253119
-4.679646 1.760940 1.235794
0.764164 -4.941260 7.533991
0.848226 -4.927526 6.134938
4.850116 1.215062 2.434891
2.313428 4.432612 8.972207
-4.910931 -0.939549 7.188612
-4.279061 2.586434 0.814953
-4.999966 0.018396 3.489590
-4.818131 -1.336269 1.252414
-4.014364 2.980752 4.967734
2.500639 4.329758 2.376586
4.446484 2.286652 0.057810
4.909869 0.945085 6.926047
0.009453 -4.999991 6.989627
4.808210 -1.371539 1.204724
-1.442583 4.787374 2.167501
-4.379010 2.413353 7.469657
1.591820 -4.739843 0.431642
-0.550716 4.969579 0.206356
-3.768856 3.285684 9.356997
3.995428 -3.006086 1.693855
0.537978 4.970974 7.714097
-4.984313 0.395755 0.750381
4.419779 2.337852 7.339847
-0.163780 4.997317 6.090181
4.459431 -2.261299 7.830686
4.971467 0.533400 5.069451
-0.195445 -4.996179 3.174152
-1.445897 4.786375 3.796181
4.618787 -1.914890 3.456507
3.444184 -3.624582 2.812451
-4.632430 1.881645 1.380321
-3.242889 3.805741 6.127621
-4.388183 -2.396633 0.924223
1.600798 -4.736818 8.769018
0.691593 4.951939 6.929999
3.426785 -3.641036 7.240093
-1.269449 4.836166 1.211694
3.572779 3.497893 6.366422
-4.752742 1.552882 1.997555
3.651290 3.415858 5.619377
4.768168 -1.504850 0.417138
-4.986849 -0.362402 3.312568
2.384170 4.394967 2.824262
-2.251987 4.464141 7.458177
3.225334 3.820631 7.507916
-4.821599 -1.323700 0.131494
